ply
		format ascii 1.0
		element vertex 12571
		property float x
		property float y
		property float z
		property uchar red
		property uchar green
		property uchar blue
		end_header
147.000000 -28.000000 8.778000 1 1 1
148.000000 -28.000000 7.780500 0 0 0
149.000000 -28.000000 7.581000 0 0 0
150.000000 -28.000000 7.780500 0 0 0
151.000000 -28.000000 8.578500 0 0 0
152.000000 -28.000000 8.778000 0 0 0
153.000000 -28.000000 8.977500 0 0 0
154.000000 -28.000000 8.977500 0 0 0
155.000000 -28.000000 8.977500 0 0 0
156.000000 -28.000000 8.977500 0 0 0
157.000000 -28.000000 8.977500 0 0 0
158.000000 -28.000000 8.778000 0 0 0
159.000000 -28.000000 8.778000 0 0 0
160.000000 -28.000000 8.578500 0 0 0
161.000000 -28.000000 8.379000 0 0 0
162.000000 -28.000000 8.578500 0 0 0
163.000000 -28.000000 8.578500 0 0 0
164.000000 -28.000000 8.379000 0 0 0
63.000000 -29.000000 17.356499 53 50 43
64.000000 -29.000000 18.154499 57 51 42
65.000000 -29.000000 18.154499 55 47 38
66.000000 -29.000000 18.154499 45 36 27
67.000000 -29.000000 18.553499 40 31 22
68.000000 -29.000000 18.753000 38 27 18
69.000000 -29.000000 18.952499 38 22 15
70.000000 -29.000000 19.152000 39 20 14
71.000000 -29.000000 19.152000 39 19 13
72.000000 -29.000000 19.351500 38 18 12
73.000000 -29.000000 19.550999 39 19 11
74.000000 -29.000000 19.550999 49 27 16
75.000000 -29.000000 19.550999 61 35 23
76.000000 -29.000000 19.351500 47 24 13
77.000000 -29.000000 19.351500 39 19 10
78.000000 -29.000000 19.351500 38 20 12
79.000000 -29.000000 19.351500 38 20 13
80.000000 -29.000000 19.152000 41 26 16
81.000000 -29.000000 18.753000 47 39 26
82.000000 -29.000000 18.553499 27 26 18
83.000000 -29.000000 17.157000 25 27 21
84.000000 -29.000000 16.757999 35 40 33
85.000000 -29.000000 16.757999 44 51 43
86.000000 -29.000000 17.356499 42 56 42
87.000000 -29.000000 18.553499 50 71 51
88.000000 -29.000000 19.550999 54 80 57
89.000000 -29.000000 20.348999 54 85 62
90.000000 -29.000000 20.548500 55 88 68
93.000000 -29.000000 8.578500 58 93 85
94.000000 -29.000000 36.109501 66 97 90
95.000000 -29.000000 37.904999 103 121 111
96.000000 -29.000000 38.503498 135 138 124
97.000000 -29.000000 39.301498 146 145 130
98.000000 -29.000000 39.700500 159 158 144
99.000000 -29.000000 40.299000 162 166 157
100.000000 -29.000000 40.299000 110 139 141
101.000000 -29.000000 40.299000 67 119 129
102.000000 -29.000000 17.955000 62 121 132
103.000000 -29.000000 17.356499 63 122 135
104.000000 -29.000000 17.356499 65 124 139
105.000000 -29.000000 17.955000 67 126 142
106.000000 -29.000000 17.955000 70 129 143
107.000000 -29.000000 18.154499 72 131 145
108.000000 -29.000000 18.354000 74 133 146
109.000000 -29.000000 18.354000 76 135 147
110.000000 -29.000000 18.154499 77 137 148
111.000000 -29.000000 18.154499 80 139 150
112.000000 -29.000000 18.753000 84 141 152
113.000000 -29.000000 19.152000 88 144 154
114.000000 -29.000000 19.152000 92 147 155
115.000000 -29.000000 19.351500 95 149 158
116.000000 -29.000000 19.351500 99 152 161
117.000000 -29.000000 19.351500 103 154 162
118.000000 -29.000000 19.351500 106 155 164
119.000000 -29.000000 19.351500 109 157 165
120.000000 -29.000000 19.152000 110 158 166
121.000000 -29.000000 19.152000 111 159 165
122.000000 -29.000000 19.152000 113 159 164
123.000000 -29.000000 18.952499 113 159 163
124.000000 -29.000000 18.753000 112 157 160
125.000000 -29.000000 18.354000 111 152 156
126.000000 -29.000000 18.354000 124 155 156
127.000000 -29.000000 17.955000 147 165 163
128.000000 -29.000000 17.955000 150 164 161
129.000000 -29.000000 17.955000 153 166 163
130.000000 -29.000000 18.154499 156 169 166
131.000000 -29.000000 18.553499 150 165 162
132.000000 -29.000000 18.952499 108 124 121
133.000000 -29.000000 19.152000 42 50 46
134.000000 -29.000000 19.351500 38 26 23
135.000000 -29.000000 20.149500 98 39 43
136.000000 -29.000000 20.747999 126 40 47
137.000000 -29.000000 23.540998 129 35 43
138.000000 -29.000000 24.737999 132 34 44
139.000000 -29.000000 25.535999 131 33 45
140.000000 -29.000000 25.735498 139 41 54
141.000000 -29.000000 25.934999 138 47 61
142.000000 -29.000000 9.576000 77 42 44
143.000000 -29.000000 9.177000 47 46 41
144.000000 -29.000000 9.177000 37 37 33
145.000000 -29.000000 8.977500 18 19 15
146.000000 -29.000000 8.977500 6 7 4
147.000000 -29.000000 8.778000 1 1 1
148.000000 -29.000000 7.780500 0 0 0
149.000000 -29.000000 7.581000 0 0 0
150.000000 -29.000000 7.780500 0 0 0
151.000000 -29.000000 8.578500 0 0 0
152.000000 -29.000000 8.977500 0 0 0
153.000000 -29.000000 9.177000 0 0 0
154.000000 -29.000000 9.177000 0 0 0
155.000000 -29.000000 9.177000 0 0 0
156.000000 -29.000000 9.177000 0 0 0
157.000000 -29.000000 9.177000 0 0 0
158.000000 -29.000000 9.177000 0 0 0
159.000000 -29.000000 9.177000 0 0 0
160.000000 -29.000000 8.977500 0 0 0
161.000000 -29.000000 8.778000 0 0 0
162.000000 -29.000000 8.578500 0 0 0
163.000000 -29.000000 8.578500 0 0 0
164.000000 -29.000000 8.379000 0 0 0
63.000000 -30.000000 17.356499 53 50 43
64.000000 -30.000000 18.154499 56 50 42
65.000000 -30.000000 18.154499 53 45 37
66.000000 -30.000000 18.154499 43 34 25
67.000000 -30.000000 18.553499 38 29 20
68.000000 -30.000000 18.753000 37 26 17
69.000000 -30.000000 18.952499 37 21 14
70.000000 -30.000000 19.152000 38 20 14
71.000000 -30.000000 19.152000 38 18 13
72.000000 -30.000000 19.351500 38 18 11
73.000000 -30.000000 19.351500 39 19 10
74.000000 -30.000000 19.351500 47 25 15
75.000000 -30.000000 19.351500 57 33 21
76.000000 -30.000000 19.351500 45 23 12
77.000000 -30.000000 19.351500 38 19 10
78.000000 -30.000000 19.351500 37 20 12
79.000000 -30.000000 19.351500 38 19 12
80.000000 -30.000000 19.152000 40 25 15
81.000000 -30.000000 18.952499 46 38 26
82.000000 -30.000000 18.553499 29 28 21
83.000000 -30.000000 17.556000 30 33 26
84.000000 -30.000000 17.157000 41 46 39
85.000000 -30.000000 17.356499 43 51 42
86.000000 -30.000000 17.955000 39 51 38
87.000000 -30.000000 18.753000 49 70 50
88.000000 -30.000000 19.550999 54 80 57
89.000000 -30.000000 20.548500 55 85 62
90.000000 -30.000000 20.548500 55 88 67
93.000000 -30.000000 34.313999 57 93 84
94.000000 -30.000000 36.109501 64 96 87
95.000000 -30.000000 37.904999 93 104 94
96.000000 -30.000000 38.503498 122 104 92
97.000000 -30.000000 39.301498 130 102 90
98.000000 -30.000000 39.301498 139 108 98
99.000000 -30.000000 39.700500 141 117 113
100.000000 -30.000000 40.299000 99 117 120
101.000000 -30.000000 39.301498 66 117 125
102.000000 -30.000000 18.354000 61 119 130
103.000000 -30.000000 17.955000 61 120 133
104.000000 -30.000000 17.955000 63 122 137
105.000000 -30.000000 18.952499 65 124 140
106.000000 -30.000000 19.152000 68 127 141
107.000000 -30.000000 19.152000 71 129 142
108.000000 -30.000000 19.550999 75 131 143
109.000000 -30.000000 19.750500 84 137 147
110.000000 -30.000000 19.750500 99 147 154
111.000000 -30.000000 19.750500 115 157 161
112.000000 -30.000000 19.949999 130 166 167
113.000000 -30.000000 19.949999 142 173 173
114.000000 -30.000000 20.149500 151 179 177
115.000000 -30.000000 20.149500 158 183 180
116.000000 -30.000000 19.949999 164 186 183
117.000000 -30.000000 19.949999 170 190 185
118.000000 -30.000000 19.750500 173 190 184
119.000000 -30.000000 19.550999 173 189 183
120.000000 -30.000000 19.351500 172 187 180
121.000000 -30.000000 19.351500 170 185 176
122.000000 -30.000000 19.152000 170 184 174
123.000000 -30.000000 19.152000 169 182 172
124.000000 -30.000000 19.152000 167 180 170
125.000000 -30.000000 18.753000 165 176 166
126.000000 -30.000000 18.753000 165 175 164
127.000000 -30.000000 18.354000 169 176 164
128.000000 -30.000000 18.354000 169 175 163
129.000000 -30.000000 18.553499 169 175 163
130.000000 -30.000000 18.952499 170 175 163
131.000000 -30.000000 19.152000 166 172 160
132.000000 -30.000000 19.351500 144 149 138
133.000000 -30.000000 19.351500 111 114 104
134.000000 -30.000000 20.149500 93 90 80
135.000000 -30.000000 20.747999 95 72 65
136.000000 -30.000000 23.540998 103 57 53
137.000000 -30.000000 24.737999 102 39 39
138.000000 -30.000000 25.535999 115 36 42
139.000000 -30.000000 25.735498 118 33 42
140.000000 -30.000000 26.134499 123 34 46
141.000000 -30.000000 25.535999 123 53 62
142.000000 -30.000000 9.576000 107 90 87
143.000000 -30.000000 9.376500 109 109 104
144.000000 -30.000000 9.177000 78 79 74
145.000000 -30.000000 9.177000 35 35 31
146.000000 -30.000000 8.977500 9 9 6
147.000000 -30.000000 8.778000 1 1 1
148.000000 -30.000000 7.780500 0 0 0
149.000000 -30.000000 7.780500 0 0 0
150.000000 -30.000000 7.980000 0 0 0
151.000000 -30.000000 8.778000 0 0 0
152.000000 -30.000000 9.177000 0 0 0
153.000000 -30.000000 9.177000 0 0 0
154.000000 -30.000000 9.376500 0 0 0
155.000000 -30.000000 9.376500 0 0 0
156.000000 -30.000000 9.376500 0 0 0
157.000000 -30.000000 9.376500 0 0 0
158.000000 -30.000000 9.376500 0 0 0
159.000000 -30.000000 9.376500 0 0 0
160.000000 -30.000000 9.376500 0 0 0
161.000000 -30.000000 9.177000 0 0 0
162.000000 -30.000000 8.977500 0 0 0
163.000000 -30.000000 8.977500 0 0 0
164.000000 -30.000000 8.778000 0 0 0
63.000000 -31.000000 17.356499 51 49 42
64.000000 -31.000000 17.955000 55 49 40
65.000000 -31.000000 17.955000 51 44 35
66.000000 -31.000000 17.955000 41 33 23
67.000000 -31.000000 18.553499 37 28 19
68.000000 -31.000000 18.753000 37 25 17
69.000000 -31.000000 18.952499 37 21 14
70.000000 -31.000000 19.152000 38 19 13
71.000000 -31.000000 19.152000 38 18 12
72.000000 -31.000000 19.351500 38 18 11
73.000000 -31.000000 19.351500 39 19 10
74.000000 -31.000000 19.351500 47 25 14
75.000000 -31.000000 19.351500 53 30 18
76.000000 -31.000000 19.351500 44 23 12
77.000000 -31.000000 19.351500 37 18 10
78.000000 -31.000000 19.351500 37 19 12
79.000000 -31.000000 19.351500 37 19 11
80.000000 -31.000000 19.152000 40 25 15
81.000000 -31.000000 19.152000 46 39 28
82.000000 -31.000000 18.753000 29 29 21
83.000000 -31.000000 18.354000 22 25 18
84.000000 -31.000000 17.755499 32 36 29
85.000000 -31.000000 17.955000 37 44 36
86.000000 -31.000000 18.553499 36 48 35
87.000000 -31.000000 19.152000 49 69 49
88.000000 -31.000000 19.750500 53 79 55
89.000000 -31.000000 20.548500 54 84 61
90.000000 -31.000000 20.548500 54 87 66
93.000000 -31.000000 34.313999 60 92 80
94.000000 -31.000000 35.710499 76 88 79
95.000000 -31.000000 37.506001 111 71 68
96.000000 -31.000000 38.304001 134 54 54
97.000000 -31.000000 38.702999 140 50 52
98.000000 -31.000000 39.301498 156 61 64
99.000000 -31.000000 39.301498 168 74 81
100.000000 -31.000000 39.301498 138 90 98
101.000000 -31.000000 39.101997 85 109 117
102.000000 -31.000000 38.702999 63 116 128
103.000000 -31.000000 18.354000 61 119 133
104.000000 -31.000000 18.952499 62 121 136
105.000000 -31.000000 19.152000 64 123 138
106.000000 -31.000000 20.947500 67 126 140
107.000000 -31.000000 21.745499 71 128 140
108.000000 -31.000000 22.144499 89 137 144
109.000000 -31.000000 22.543499 133 165 165
110.000000 -31.000000 22.543499 168 188 182
111.000000 -31.000000 22.543499 185 198 189
112.000000 -31.000000 22.543499 192 202 191
113.000000 -31.000000 22.743000 195 203 191
114.000000 -31.000000 23.142000 195 202 189
115.000000 -31.000000 23.142000 195 200 187
116.000000 -31.000000 22.942499 194 199 185
117.000000 -31.000000 22.743000 193 197 183
118.000000 -31.000000 22.543499 190 194 180
119.000000 -31.000000 21.346498 187 190 176
120.000000 -31.000000 20.348999 183 186 171
121.000000 -31.000000 20.149500 179 182 166
122.000000 -31.000000 20.149500 177 178 161
123.000000 -31.000000 20.149500 173 175 157
124.000000 -31.000000 19.750500 170 172 153
125.000000 -31.000000 19.550999 166 168 150
126.000000 -31.000000 19.550999 163 165 146
127.000000 -31.000000 19.152000 161 163 143
128.000000 -31.000000 19.152000 160 161 142
129.000000 -31.000000 19.550999 159 160 141
130.000000 -31.000000 19.750500 160 160 141
131.000000 -31.000000 19.750500 160 159 141
132.000000 -31.000000 20.348999 159 159 140
133.000000 -31.000000 21.745499 157 156 139
134.000000 -31.000000 23.142000 150 149 132
135.000000 -31.000000 24.538500 130 125 110
136.000000 -31.000000 24.937500 100 89 75
137.000000 -31.000000 25.535999 95 74 63
138.000000 -31.000000 25.735498 120 83 79
139.000000 -31.000000 26.134499 118 67 69
140.000000 -31.000000 26.134499 106 52 56
141.000000 -31.000000 9.576000 104 73 71
142.000000 -31.000000 9.576000 120 117 110
143.000000 -31.000000 9.576000 127 129 123
144.000000 -31.000000 9.376500 96 96 91
145.000000 -31.000000 9.177000 50 50 45
146.000000 -31.000000 9.177000 11 11 8
147.000000 -31.000000 8.778000 1 1 1
148.000000 -31.000000 7.980000 0 0 0
149.000000 -31.000000 7.980000 0 0 0
150.000000 -31.000000 7.980000 0 0 0
151.000000 -31.000000 8.778000 0 0 0
152.000000 -31.000000 9.177000 0 0 0
153.000000 -31.000000 9.376500 0 0 0
154.000000 -31.000000 9.376500 0 0 0
155.000000 -31.000000 9.376500 0 0 0
156.000000 -31.000000 9.376500 0 0 0
157.000000 -31.000000 9.376500 0 0 0
158.000000 -31.000000 9.376500 0 0 0
159.000000 -31.000000 9.376500 0 0 0
160.000000 -31.000000 9.376500 0 0 0
161.000000 -31.000000 9.376500 0 0 0
162.000000 -31.000000 9.177000 0 0 0
163.000000 -31.000000 9.177000 0 0 0
164.000000 -31.000000 8.977500 0 0 0
63.000000 -32.000000 17.356499 51 49 41
64.000000 -32.000000 17.755499 54 48 39
65.000000 -32.000000 17.755499 50 43 34
66.000000 -32.000000 17.955000 40 33 24
67.000000 -32.000000 18.354000 36 28 19
68.000000 -32.000000 18.553499 35 24 16
69.000000 -32.000000 18.753000 36 21 14
70.000000 -32.000000 18.952499 38 19 13
71.000000 -32.000000 19.152000 38 19 12
72.000000 -32.000000 19.351500 38 18 12
73.000000 -32.000000 19.351500 39 19 10
74.000000 -32.000000 19.351500 47 25 14
75.000000 -32.000000 19.351500 54 31 19
76.000000 -32.000000 19.351500 44 23 12
77.000000 -32.000000 19.351500 38 18 11
78.000000 -32.000000 19.351500 37 19 12
79.000000 -32.000000 19.351500 36 19 11
80.000000 -32.000000 19.152000 40 25 15
81.000000 -32.000000 19.152000 48 40 28
82.000000 -32.000000 18.952499 28 28 20
83.000000 -32.000000 18.354000 11 13 7
84.000000 -32.000000 18.354000 9 12 6
85.000000 -32.000000 18.354000 14 20 12
86.000000 -32.000000 18.753000 28 40 26
87.000000 -32.000000 19.152000 48 67 48
88.000000 -32.000000 19.152000 53 78 55
89.000000 -32.000000 19.750500 53 83 60
93.000000 -32.000000 34.313999 82 83 72
94.000000 -32.000000 36.508499 124 64 64
95.000000 -32.000000 37.506001 156 46 52
96.000000 -32.000000 38.104500 165 40 47
97.000000 -32.000000 38.503498 172 44 51
98.000000 -32.000000 38.902500 187 59 67
99.000000 -32.000000 38.902500 199 72 81
100.000000 -32.000000 38.902500 191 74 84
101.000000 -32.000000 38.902500 147 85 97
102.000000 -32.000000 38.503498 92 106 118
103.000000 -32.000000 38.304001 66 118 131
104.000000 -32.000000 22.344000 63 122 135
105.000000 -32.000000 22.344000 65 124 137
106.000000 -32.000000 23.740499 67 126 139
107.000000 -32.000000 24.338999 71 126 137
108.000000 -32.000000 24.338999 102 134 137
109.000000 -32.000000 24.338999 159 166 159
110.000000 -32.000000 24.338999 187 189 177
111.000000 -32.000000 24.139500 195 198 184
112.000000 -32.000000 24.139500 198 200 186
113.000000 -32.000000 24.139500 197 200 186
114.000000 -32.000000 24.139500 195 198 184
115.000000 -32.000000 24.139500 193 196 181
116.000000 -32.000000 24.139500 191 194 179
117.000000 -32.000000 24.139500 189 191 177
118.000000 -32.000000 24.139500 185 187 172
119.000000 -32.000000 24.139500 181 184 168
120.000000 -32.000000 23.142000 178 181 163
121.000000 -32.000000 21.745499 175 177 159
122.000000 -32.000000 21.745499 172 172 155
123.000000 -32.000000 20.747999 168 170 150
124.000000 -32.000000 20.348999 165 166 146
125.000000 -32.000000 20.149500 162 163 143
126.000000 -32.000000 20.149500 160 160 139
127.000000 -32.000000 20.149500 158 158 137
128.000000 -32.000000 20.149500 156 155 135
129.000000 -32.000000 20.149500 155 154 134
130.000000 -32.000000 20.548500 155 154 134
131.000000 -32.000000 21.346498 155 153 134
132.000000 -32.000000 22.743000 156 153 134
133.000000 -32.000000 24.338999 156 153 135
134.000000 -32.000000 24.737999 152 148 131
135.000000 -32.000000 25.136999 128 122 108
136.000000 -32.000000 25.535999 112 105 91
137.000000 -32.000000 25.735498 134 126 112
138.000000 -32.000000 26.334000 160 149 138
139.000000 -32.000000 26.533499 146 130 123
140.000000 -32.000000 26.334000 112 99 93
141.000000 -32.000000 9.576000 100 97 89
142.000000 -32.000000 9.576000 123 125 117
143.000000 -32.000000 9.576000 134 137 130
144.000000 -32.000000 9.576000 111 113 107
145.000000 -32.000000 9.376500 65 66 60
146.000000 -32.000000 9.177000 16 16 12
147.000000 -32.000000 8.977500 2 2 1
148.000000 -32.000000 8.179500 0 0 0
149.000000 -32.000000 7.980000 0 0 0
150.000000 -32.000000 8.179500 0 0 0
151.000000 -32.000000 8.778000 0 0 0
152.000000 -32.000000 9.177000 0 0 0
153.000000 -32.000000 9.576000 0 0 0
154.000000 -32.000000 9.576000 0 0 0
155.000000 -32.000000 9.576000 0 0 0
156.000000 -32.000000 9.576000 0 0 0
157.000000 -32.000000 9.576000 0 0 0
158.000000 -32.000000 9.576000 0 0 0
159.000000 -32.000000 9.576000 0 0 0
160.000000 -32.000000 9.576000 0 0 0
161.000000 -32.000000 9.576000 0 0 0
162.000000 -32.000000 9.376500 0 0 0
163.000000 -32.000000 9.376500 0 0 0
164.000000 -32.000000 9.177000 0 0 0
63.000000 -33.000000 17.356499 51 49 41
64.000000 -33.000000 17.755499 53 47 38
65.000000 -33.000000 17.755499 49 42 33
66.000000 -33.000000 17.755499 40 32 23
67.000000 -33.000000 18.354000 36 27 18
68.000000 -33.000000 18.553499 34 24 15
69.000000 -33.000000 18.753000 35 21 13
70.000000 -33.000000 18.952499 38 19 13
71.000000 -33.000000 19.152000 37 18 12
72.000000 -33.000000 19.351500 37 18 12
73.000000 -33.000000 19.351500 39 19 10
74.000000 -33.000000 19.351500 50 26 14
75.000000 -33.000000 19.550999 58 33 19
76.000000 -33.000000 19.351500 48 25 13
77.000000 -33.000000 19.351500 39 19 11
78.000000 -33.000000 19.351500 36 19 11
79.000000 -33.000000 19.351500 36 19 11
80.000000 -33.000000 19.152000 40 26 15
81.000000 -33.000000 19.152000 50 42 30
82.000000 -33.000000 18.952499 29 28 20
83.000000 -33.000000 18.553499 9 11 4
84.000000 -33.000000 18.354000 4 8 1
85.000000 -33.000000 18.354000 5 11 3
86.000000 -33.000000 18.553499 22 33 20
87.000000 -33.000000 18.753000 46 65 46
92.000000 -33.000000 34.313999 89 80 67
93.000000 -33.000000 36.508499 138 62 61
94.000000 -33.000000 37.306499 167 47 54
95.000000 -33.000000 37.904999 175 43 51
96.000000 -33.000000 38.104500 178 44 52
97.000000 -33.000000 38.304001 184 50 56
98.000000 -33.000000 38.702999 192 61 67
99.000000 -33.000000 38.702999 201 75 81
100.000000 -33.000000 38.702999 205 77 85
101.000000 -33.000000 38.702999 194 71 82
102.000000 -33.000000 38.503498 158 79 91
103.000000 -33.000000 38.304001 101 103 115
104.000000 -33.000000 38.304001 69 120 131
105.000000 -33.000000 24.937500 65 124 136
106.000000 -33.000000 24.937500 67 126 138
107.000000 -33.000000 24.937500 73 124 134
108.000000 -33.000000 24.937500 100 111 113
109.000000 -33.000000 24.937500 134 115 110
110.000000 -33.000000 24.737999 152 134 125
111.000000 -33.000000 24.538500 164 149 140
112.000000 -33.000000 24.338999 175 164 153
113.000000 -33.000000 24.338999 182 175 163
114.000000 -33.000000 24.538500 186 181 169
115.000000 -33.000000 24.538500 186 184 171
116.000000 -33.000000 24.538500 186 185 172
117.000000 -33.000000 24.538500 186 184 171
118.000000 -33.000000 24.538500 183 182 169
119.000000 -33.000000 24.338999 181 180 166
120.000000 -33.000000 24.139500 178 178 162
121.000000 -33.000000 23.341499 175 175 159
122.000000 -33.000000 23.341499 173 172 156
123.000000 -33.000000 23.341499 171 170 152
124.000000 -33.000000 23.341499 168 168 150
125.000000 -33.000000 24.338999 168 166 148
126.000000 -33.000000 24.338999 166 164 146
127.000000 -33.000000 24.338999 165 163 145
128.000000 -33.000000 22.743000 165 162 144
129.000000 -33.000000 22.743000 165 162 145
130.000000 -33.000000 23.740499 165 162 145
131.000000 -33.000000 23.740499 167 161 146
132.000000 -33.000000 24.737999 169 163 148
133.000000 -33.000000 24.937500 171 164 151
134.000000 -33.000000 25.136999 168 159 148
135.000000 -33.000000 25.535999 157 146 136
136.000000 -33.000000 25.735498 160 147 139
137.000000 -33.000000 26.334000 172 158 150
138.000000 -33.000000 26.533499 172 156 149
139.000000 -33.000000 26.733000 144 130 125
140.000000 -33.000000 26.533499 106 101 94
141.000000 -33.000000 9.576000 100 100 93
142.000000 -33.000000 9.576000 125 127 120
143.000000 -33.000000 9.576000 146 149 142
144.000000 -33.000000 9.576000 134 137 131
145.000000 -33.000000 9.576000 84 86 79
146.000000 -33.000000 9.376500 22 23 19
147.000000 -33.000000 9.177000 2 2 2
148.000000 -33.000000 8.578500 0 0 0
149.000000 -33.000000 8.379000 0 0 0
150.000000 -33.000000 8.379000 0 0 0
151.000000 -33.000000 8.778000 0 0 0
152.000000 -33.000000 9.177000 0 0 0
153.000000 -33.000000 9.576000 0 0 0
154.000000 -33.000000 9.576000 0 0 0
155.000000 -33.000000 9.576000 0 0 0
156.000000 -33.000000 9.576000 0 0 0
157.000000 -33.000000 9.576000 0 0 0
158.000000 -33.000000 9.576000 0 0 0
159.000000 -33.000000 9.576000 0 0 0
160.000000 -33.000000 9.576000 0 0 0
161.000000 -33.000000 9.576000 0 0 0
162.000000 -33.000000 9.576000 0 0 0
163.000000 -33.000000 9.576000 0 0 0
164.000000 -33.000000 9.376500 0 0 0
63.000000 -34.000000 17.356499 50 48 41
64.000000 -34.000000 17.755499 52 46 38
65.000000 -34.000000 17.755499 50 42 33
66.000000 -34.000000 17.955000 40 32 23
67.000000 -34.000000 18.553499 34 25 16
68.000000 -34.000000 18.753000 32 22 13
69.000000 -34.000000 18.952499 34 20 12
70.000000 -34.000000 19.152000 38 19 13
71.000000 -34.000000 19.152000 38 18 13
72.000000 -34.000000 19.351500 38 18 12
73.000000 -34.000000 19.550999 42 21 12
74.000000 -34.000000 19.550999 62 36 19
75.000000 -34.000000 19.550999 76 45 25
76.000000 -34.000000 19.550999 67 39 22
77.000000 -34.000000 19.351500 44 23 13
78.000000 -34.000000 19.351500 36 18 11
79.000000 -34.000000 19.152000 35 18 11
80.000000 -34.000000 19.152000 39 25 16
81.000000 -34.000000 19.152000 56 48 36
82.000000 -34.000000 18.952499 35 34 27
83.000000 -34.000000 18.354000 9 11 5
90.000000 -34.000000 37.106998 58 85 61
91.000000 -34.000000 37.306499 90 78 61
92.000000 -34.000000 37.306499 144 59 58
93.000000 -34.000000 37.506001 171 47 52
94.000000 -34.000000 37.904999 176 43 48
95.000000 -34.000000 38.104500 178 42 48
96.000000 -34.000000 38.104500 180 44 51
97.000000 -34.000000 38.304001 185 49 56
98.000000 -34.000000 38.503498 192 60 66
99.000000 -34.000000 38.702999 200 73 79
100.000000 -34.000000 38.702999 205 81 87
101.000000 -34.000000 38.503498 204 76 84
102.000000 -34.000000 38.503498 196 66 77
103.000000 -34.000000 38.304001 165 74 86
104.000000 -34.000000 38.304001 105 104 115
105.000000 -34.000000 26.533499 70 121 133
106.000000 -34.000000 25.535999 67 125 136
107.000000 -34.000000 25.535999 75 122 130
108.000000 -34.000000 25.535999 103 102 103
109.000000 -34.000000 25.336500 125 94 90
110.000000 -34.000000 25.136999 131 99 94
111.000000 -34.000000 24.937500 134 102 97
112.000000 -34.000000 24.737999 138 108 103
113.000000 -34.000000 24.737999 144 116 110
114.000000 -34.000000 24.937500 149 124 117
115.000000 -34.000000 24.937500 153 130 124
116.000000 -34.000000 24.937500 157 136 129
117.000000 -34.000000 24.937500 160 141 133
118.000000 -34.000000 24.937500 164 146 138
119.000000 -34.000000 24.737999 166 149 141
120.000000 -34.000000 24.538500 169 153 144
121.000000 -34.000000 24.338999 170 155 146
122.000000 -34.000000 24.139500 171 156 148
123.000000 -34.000000 24.338999 173 158 148
124.000000 -34.000000 24.538500 173 158 149
125.000000 -34.000000 24.737999 174 158 149
126.000000 -34.000000 24.937500 174 158 149
127.000000 -34.000000 25.136999 173 157 148
128.000000 -34.000000 25.136999 175 158 149
129.000000 -34.000000 25.136999 179 160 153
130.000000 -34.000000 25.136999 179 159 152
131.000000 -34.000000 25.535999 178 156 150
132.000000 -34.000000 25.535999 178 156 151
133.000000 -34.000000 25.535999 176 154 149
134.000000 -34.000000 25.535999 173 150 146
135.000000 -34.000000 25.735498 171 146 144
136.000000 -34.000000 26.334000 170 144 142
137.000000 -34.000000 26.533499 168 141 140
138.000000 -34.000000 26.932499 161 135 133
139.000000 -34.000000 26.932499 134 114 111
140.000000 -34.000000 26.733000 97 91 84
141.000000 -34.000000 9.576000 98 99 91
142.000000 -34.000000 9.576000 124 127 120
143.000000 -34.000000 9.576000 155 158 151
144.000000 -34.000000 9.576000 156 159 153
145.000000 -34.000000 9.576000 108 111 105
146.000000 -34.000000 9.376500 32 34 29
147.000000 -34.000000 9.177000 3 3 2
148.000000 -34.000000 8.578500 0 0 0
149.000000 -34.000000 8.578500 0 0 0
150.000000 -34.000000 8.578500 0 0 0
151.000000 -34.000000 8.778000 0 0 0
152.000000 -34.000000 9.177000 0 0 0
153.000000 -34.000000 9.576000 0 0 0
154.000000 -34.000000 9.576000 0 0 0
155.000000 -34.000000 9.576000 0 0 0
156.000000 -34.000000 9.576000 0 0 0
157.000000 -34.000000 9.576000 0 0 0
158.000000 -34.000000 9.576000 0 0 0
159.000000 -34.000000 9.576000 0 0 0
160.000000 -34.000000 9.576000 0 0 0
161.000000 -34.000000 9.576000 0 0 0
162.000000 -34.000000 9.576000 0 0 0
163.000000 -34.000000 9.576000 0 0 0
164.000000 -34.000000 9.576000 0 0 0
63.000000 -35.000000 17.556000 56 53 46
64.000000 -35.000000 17.755499 54 48 38
65.000000 -35.000000 18.154499 50 42 33
66.000000 -35.000000 18.553499 39 31 21
67.000000 -35.000000 18.753000 31 22 13
68.000000 -35.000000 18.952499 31 21 12
69.000000 -35.000000 19.152000 35 20 12
70.000000 -35.000000 19.152000 38 19 13
71.000000 -35.000000 19.351500 39 18 13
72.000000 -35.000000 19.550999 38 17 12
73.000000 -35.000000 19.550999 41 20 12
74.000000 -35.000000 19.550999 64 38 20
75.000000 -35.000000 19.550999 86 54 30
76.000000 -35.000000 19.550999 70 41 23
77.000000 -35.000000 19.351500 43 22 13
78.000000 -35.000000 19.351500 35 18 11
79.000000 -35.000000 19.152000 35 19 11
80.000000 -35.000000 19.152000 39 26 17
87.000000 -35.000000 38.104500 43 62 43
88.000000 -35.000000 38.304001 50 75 51
89.000000 -35.000000 38.104500 57 81 55
90.000000 -35.000000 37.904999 89 76 58
91.000000 -35.000000 37.904999 143 58 57
92.000000 -35.000000 37.904999 171 46 51
93.000000 -35.000000 37.904999 175 42 47
94.000000 -35.000000 38.104500 176 41 46
95.000000 -35.000000 38.104500 177 41 46
96.000000 -35.000000 38.104500 179 43 49
97.000000 -35.000000 38.304001 184 48 55
98.000000 -35.000000 38.304001 189 58 64
99.000000 -35.000000 38.503498 196 71 76
100.000000 -35.000000 38.503498 203 81 87
101.000000 -35.000000 38.503498 204 81 88
102.000000 -35.000000 38.503498 202 70 80
103.000000 -35.000000 38.304001 194 62 74
104.000000 -35.000000 38.304001 161 75 88
105.000000 -35.000000 37.904999 99 108 119
106.000000 -35.000000 26.533499 71 123 133
107.000000 -35.000000 26.134499 79 119 125
108.000000 -35.000000 25.535999 107 96 97
109.000000 -35.000000 25.535999 125 91 88
110.000000 -35.000000 25.535999 131 95 91
111.000000 -35.000000 25.336500 131 95 91
112.000000 -35.000000 25.336500 131 94 90
113.000000 -35.000000 25.336500 131 94 90
114.000000 -35.000000 25.336500 131 94 90
115.000000 -35.000000 25.336500 132 94 92
116.000000 -35.000000 25.535999 132 95 93
117.000000 -35.000000 25.535999 133 96 93
118.000000 -35.000000 25.336500 134 98 96
119.000000 -35.000000 24.937500 136 101 99
120.000000 -35.000000 24.737999 140 105 103
121.000000 -35.000000 24.538500 145 109 107
122.000000 -35.000000 24.538500 148 113 111
123.000000 -35.000000 24.737999 150 115 113
124.000000 -35.000000 24.737999 152 118 116
125.000000 -35.000000 25.336500 155 120 119
126.000000 -35.000000 25.535999 157 121 120
127.000000 -35.000000 25.934999 157 121 120
128.000000 -35.000000 26.733000 158 122 121
129.000000 -35.000000 26.733000 165 127 127
130.000000 -35.000000 26.733000 168 131 131
131.000000 -35.000000 26.533499 168 132 132
132.000000 -35.000000 26.134499 168 133 133
133.000000 -35.000000 26.134499 166 133 132
134.000000 -35.000000 26.134499 164 131 131
135.000000 -35.000000 26.533499 164 132 132
136.000000 -35.000000 26.533499 164 133 133
137.000000 -35.000000 26.932499 164 134 134
138.000000 -35.000000 27.531000 160 131 131
139.000000 -35.000000 27.929998 135 113 111
140.000000 -35.000000 27.531000 99 91 85
141.000000 -35.000000 9.576000 97 98 90
142.000000 -35.000000 9.576000 125 128 121
143.000000 -35.000000 9.576000 161 164 158
144.000000 -35.000000 9.576000 168 172 166
145.000000 -35.000000 9.576000 135 138 132
146.000000 -35.000000 9.376500 50 51 47
147.000000 -35.000000 9.376500 5 5 3
148.000000 -35.000000 8.778000 0 0 0
149.000000 -35.000000 8.578500 0 0 0
150.000000 -35.000000 8.578500 0 0 0
151.000000 -35.000000 8.778000 0 0 0
152.000000 -35.000000 8.977500 0 0 0
153.000000 -35.000000 9.576000 0 0 0
154.000000 -35.000000 9.576000 0 0 0
155.000000 -35.000000 9.576000 0 0 0
156.000000 -35.000000 9.576000 0 0 0
157.000000 -35.000000 9.576000 0 0 0
158.000000 -35.000000 9.576000 0 0 0
159.000000 -35.000000 9.576000 0 0 0
160.000000 -35.000000 9.576000 0 0 0
161.000000 -35.000000 9.576000 0 0 0
162.000000 -35.000000 9.576000 0 0 0
163.000000 -35.000000 9.576000 0 0 0
164.000000 -35.000000 9.576000 0 0 0
63.000000 -36.000000 17.755499 97 93 84
64.000000 -36.000000 18.354000 78 71 61
65.000000 -36.000000 18.753000 63 54 43
66.000000 -36.000000 18.753000 52 42 32
67.000000 -36.000000 19.152000 42 31 21
68.000000 -36.000000 19.351500 38 25 16
69.000000 -36.000000 19.550999 37 21 13
70.000000 -36.000000 19.550999 39 19 13
71.000000 -36.000000 19.750500 39 19 13
72.000000 -36.000000 19.750500 38 18 13
73.000000 -36.000000 19.949999 37 18 11
74.000000 -36.000000 19.949999 46 24 13
75.000000 -36.000000 19.750500 58 34 20
76.000000 -36.000000 19.750500 47 24 14
77.000000 -36.000000 19.550999 38 18 10
78.000000 -36.000000 19.351500 35 18 11
79.000000 -36.000000 19.152000 34 18 11
85.000000 -36.000000 38.104500 9 14 7
86.000000 -36.000000 38.104500 20 30 18
87.000000 -36.000000 38.304001 43 60 41
88.000000 -36.000000 38.304001 53 73 49
89.000000 -36.000000 38.304001 83 73 55
90.000000 -36.000000 38.104500 140 59 57
91.000000 -36.000000 38.104500 168 46 51
92.000000 -36.000000 38.104500 173 41 47
93.000000 -36.000000 38.104500 174 39 45
94.000000 -36.000000 38.304001 174 39 44
95.000000 -36.000000 38.104500 176 40 45
96.000000 -36.000000 38.104500 178 42 48
97.000000 -36.000000 38.104500 182 47 53
98.000000 -36.000000 38.304001 187 55 61
99.000000 -36.000000 38.304001 192 67 73
100.000000 -36.000000 38.503498 200 78 85
101.000000 -36.000000 38.503498 204 82 90
102.000000 -36.000000 38.503498 203 76 85
103.000000 -36.000000 38.304001 199 65 75
104.000000 -36.000000 38.304001 191 59 70
105.000000 -36.000000 38.104500 154 77 90
106.000000 -36.000000 37.904999 96 112 120
107.000000 -36.000000 26.533499 86 115 118
108.000000 -36.000000 25.735498 112 93 92
109.000000 -36.000000 25.535999 126 91 87
110.000000 -36.000000 25.535999 132 95 90
111.000000 -36.000000 25.535999 132 95 89
112.000000 -36.000000 25.535999 131 93 89
113.000000 -36.000000 25.535999 130 92 88
114.000000 -36.000000 25.535999 129 91 87
115.000000 -36.000000 25.535999 129 89 87
116.000000 -36.000000 25.535999 129 89 87
117.000000 -36.000000 25.535999 129 89 87
118.000000 -36.000000 25.535999 129 90 89
119.000000 -36.000000 25.336500 131 92 91
120.000000 -36.000000 24.937500 135 95 95
121.000000 -36.000000 24.737999 138 98 98
122.000000 -36.000000 24.737999 141 102 102
123.000000 -36.000000 25.136999 144 105 105
124.000000 -36.000000 25.336500 147 108 108
125.000000 -36.000000 25.735498 152 113 113
126.000000 -36.000000 26.334000 156 117 117
127.000000 -36.000000 26.733000 159 120 121
128.000000 -36.000000 27.331499 163 124 124
129.000000 -36.000000 27.730499 169 131 131
130.000000 -36.000000 27.730499 171 133 134
131.000000 -36.000000 27.929998 171 133 133
132.000000 -36.000000 27.929998 169 133 133
133.000000 -36.000000 27.730499 167 131 132
134.000000 -36.000000 27.531000 165 131 131
135.000000 -36.000000 27.531000 165 131 132
136.000000 -36.000000 27.531000 165 133 133
137.000000 -36.000000 27.531000 165 133 134
138.000000 -36.000000 27.929998 161 131 131
139.000000 -36.000000 28.129499 139 115 113
140.000000 -36.000000 28.129499 102 93 87
141.000000 -36.000000 9.576000 97 98 90
142.000000 -36.000000 9.576000 128 130 123
143.000000 -36.000000 9.576000 164 168 161
144.000000 -36.000000 9.576000 172 177 170
145.000000 -36.000000 9.576000 155 160 154
146.000000 -36.000000 9.576000 73 76 71
147.000000 -36.000000 9.376500 7 8 7
148.000000 -36.000000 8.778000 0 0 0
149.000000 -36.000000 8.578500 0 0 0
150.000000 -36.000000 8.578500 0 0 0
151.000000 -36.000000 8.778000 0 0 0
152.000000 -36.000000 8.977500 0 0 0
153.000000 -36.000000 9.376500 0 0 0
154.000000 -36.000000 9.576000 0 0 0
155.000000 -36.000000 9.576000 0 0 0
156.000000 -36.000000 9.576000 0 0 0
157.000000 -36.000000 9.576000 0 0 0
158.000000 -36.000000 9.576000 0 0 0
159.000000 -36.000000 9.576000 0 0 0
160.000000 -36.000000 9.576000 0 0 0
161.000000 -36.000000 9.576000 0 0 0
162.000000 -36.000000 9.576000 0 0 0
163.000000 -36.000000 9.576000 0 0 0
164.000000 -36.000000 9.576000 0 0 0
63.000000 -37.000000 18.354000 143 135 120
64.000000 -37.000000 18.753000 132 119 103
65.000000 -37.000000 20.348999 119 101 83
66.000000 -37.000000 20.348999 117 94 75
67.000000 -37.000000 20.348999 109 84 65
68.000000 -37.000000 20.747999 92 65 49
69.000000 -37.000000 20.747999 72 45 32
70.000000 -37.000000 20.747999 53 28 19
71.000000 -37.000000 20.747999 42 20 13
72.000000 -37.000000 20.548500 39 18 13
73.000000 -37.000000 20.548500 37 18 12
74.000000 -37.000000 20.348999 37 18 11
75.000000 -37.000000 20.149500 38 18 11
76.000000 -37.000000 19.949999 37 17 10
77.000000 -37.000000 19.750500 36 17 10
78.000000 -37.000000 19.351500 35 18 11
84.000000 -37.000000 38.104500 6 9 3
85.000000 -37.000000 38.104500 10 14 7
86.000000 -37.000000 38.104500 21 30 18
87.000000 -37.000000 38.104500 45 59 40
88.000000 -37.000000 38.304001 75 67 49
89.000000 -37.000000 38.104500 131 58 54
90.000000 -37.000000 38.104500 164 46 52
91.000000 -37.000000 38.104500 169 41 46
92.000000 -37.000000 38.304001 171 39 44
93.000000 -37.000000 38.304001 172 38 43
94.000000 -37.000000 38.304001 173 37 43
95.000000 -37.000000 38.304001 175 39 45
96.000000 -37.000000 38.104500 177 40 47
97.000000 -37.000000 38.104500 180 45 51
98.000000 -37.000000 38.304001 184 51 57
99.000000 -37.000000 38.304001 187 61 66
100.000000 -37.000000 38.304001 194 72 78
101.000000 -37.000000 38.503498 201 80 87
102.000000 -37.000000 38.503498 202 78 86
103.000000 -37.000000 38.503498 200 70 78
104.000000 -37.000000 38.304001 197 59 69
105.000000 -37.000000 38.304001 189 57 69
106.000000 -37.000000 38.104500 149 81 91
107.000000 -37.000000 26.533499 111 101 102
108.000000 -37.000000 25.735498 119 91 89
109.000000 -37.000000 25.535999 128 92 88
110.000000 -37.000000 25.535999 131 94 89
111.000000 -37.000000 25.535999 132 94 89
112.000000 -37.000000 25.535999 130 92 89
113.000000 -37.000000 25.535999 130 90 89
114.000000 -37.000000 25.735498 129 89 87
115.000000 -37.000000 25.735498 128 89 87
116.000000 -37.000000 25.535999 128 88 87
117.000000 -37.000000 25.535999 128 88 87
118.000000 -37.000000 25.535999 129 89 89
119.000000 -37.000000 25.336500 132 92 92
120.000000 -37.000000 25.336500 136 96 96
121.000000 -37.000000 24.937500 139 98 99
122.000000 -37.000000 25.136999 142 102 102
123.000000 -37.000000 25.336500 145 105 105
124.000000 -37.000000 25.735498 147 107 108
125.000000 -37.000000 26.334000 152 112 113
126.000000 -37.000000 26.733000 158 118 119
127.000000 -37.000000 27.331499 166 126 127
128.000000 -37.000000 27.929998 175 137 138
129.000000 -37.000000 28.129499 186 149 149
130.000000 -37.000000 28.328999 186 150 150
131.000000 -37.000000 28.328999 181 145 144
132.000000 -37.000000 28.328999 175 140 139
133.000000 -37.000000 28.328999 170 135 136
134.000000 -37.000000 28.328999 167 133 133
135.000000 -37.000000 28.129499 166 132 133
136.000000 -37.000000 27.929998 166 132 134
137.000000 -37.000000 27.929998 165 132 134
138.000000 -37.000000 27.929998 161 131 131
139.000000 -37.000000 28.129499 140 116 114
140.000000 -37.000000 28.129499 103 93 87
141.000000 -37.000000 9.576000 98 98 90
142.000000 -37.000000 9.576000 129 131 124
143.000000 -37.000000 9.775499 167 171 164
144.000000 -37.000000 9.775499 174 179 172
145.000000 -37.000000 9.576000 166 171 164
146.000000 -37.000000 9.576000 96 98 94
147.000000 -37.000000 9.376500 12 13 12
148.000000 -37.000000 8.778000 0 0 0
149.000000 -37.000000 8.578500 0 0 0
150.000000 -37.000000 8.578500 0 0 0
151.000000 -37.000000 8.778000 0 0 0
152.000000 -37.000000 9.177000 0 0 0
153.000000 -37.000000 9.376500 0 0 0
154.000000 -37.000000 9.376500 0 0 0
155.000000 -37.000000 9.576000 0 0 0
156.000000 -37.000000 9.576000 0 0 0
157.000000 -37.000000 9.576000 0 0 0
158.000000 -37.000000 9.576000 0 0 0
159.000000 -37.000000 9.576000 0 0 0
160.000000 -37.000000 9.576000 0 0 0
161.000000 -37.000000 9.576000 0 0 0
162.000000 -37.000000 9.576000 0 0 0
163.000000 -37.000000 9.576000 0 0 0
164.000000 -37.000000 9.376500 0 0 0
63.000000 -38.000000 18.753000 161 130 103
64.000000 -38.000000 20.348999 164 124 93
65.000000 -38.000000 22.144499 168 119 84
66.000000 -38.000000 22.144499 172 117 80
67.000000 -38.000000 22.144499 171 114 77
68.000000 -38.000000 22.144499 163 105 70
69.000000 -38.000000 22.144499 148 92 61
70.000000 -38.000000 22.144499 112 64 41
71.000000 -38.000000 22.144499 73 35 22
72.000000 -38.000000 22.144499 51 23 15
73.000000 -38.000000 21.745499 40 19 12
74.000000 -38.000000 21.346498 37 17 11
75.000000 -38.000000 20.548500 36 17 11
76.000000 -38.000000 20.149500 36 17 11
77.000000 -38.000000 19.750500 36 17 11
83.000000 -38.000000 37.904999 5 6 1
84.000000 -38.000000 38.104500 6 9 2
85.000000 -38.000000 38.104500 12 16 8
86.000000 -38.000000 38.104500 25 31 18
87.000000 -38.000000 38.104500 62 57 40
88.000000 -38.000000 38.104500 120 57 50
89.000000 -38.000000 38.104500 160 46 51
90.000000 -38.000000 38.104500 166 41 46
91.000000 -38.000000 38.104500 167 38 44
92.000000 -38.000000 38.104500 169 37 42
93.000000 -38.000000 38.304001 170 36 40
94.000000 -38.000000 38.304001 171 36 40
95.000000 -38.000000 38.304001 173 37 43
96.000000 -38.000000 38.304001 175 39 45
97.000000 -38.000000 38.104500 178 43 49
98.000000 -38.000000 38.304001 181 48 54
99.000000 -38.000000 38.304001 184 56 63
100.000000 -38.000000 38.304001 190 67 73
101.000000 -38.000000 38.304001 197 76 82
102.000000 -38.000000 38.503498 200 77 84
103.000000 -38.000000 38.503498 200 71 79
104.000000 -38.000000 38.503498 197 62 71
105.000000 -38.000000 38.503498 195 55 65
106.000000 -38.000000 38.503498 184 57 67
107.000000 -38.000000 38.503498 154 74 76
108.000000 -38.000000 25.735498 133 86 82
109.000000 -38.000000 25.535999 132 93 88
110.000000 -38.000000 25.535999 131 93 89
111.000000 -38.000000 25.535999 130 91 88
112.000000 -38.000000 25.535999 130 90 89
113.000000 -38.000000 25.735498 128 88 88
114.000000 -38.000000 25.735498 127 87 87
115.000000 -38.000000 25.735498 128 88 88
116.000000 -38.000000 25.735498 128 88 88
117.000000 -38.000000 25.535999 129 88 88
118.000000 -38.000000 25.535999 129 89 89
119.000000 -38.000000 25.535999 132 92 92
120.000000 -38.000000 25.336500 136 96 96
121.000000 -38.000000 25.535999 140 99 100
122.000000 -38.000000 25.535999 142 101 102
123.000000 -38.000000 25.934999 144 103 103
124.000000 -38.000000 26.533499 146 105 106
125.000000 -38.000000 27.331499 151 110 111
126.000000 -38.000000 27.730499 154 114 115
127.000000 -38.000000 27.929998 161 122 123
128.000000 -38.000000 28.328999 169 132 132
129.000000 -38.000000 28.528500 182 146 147
130.000000 -38.000000 28.727999 193 157 157
131.000000 -38.000000 28.727999 194 159 158
132.000000 -38.000000 28.727999 192 158 157
133.000000 -38.000000 28.727999 188 154 155
134.000000 -38.000000 28.727999 181 147 148
135.000000 -38.000000 28.528500 172 138 139
136.000000 -38.000000 28.129499 166 132 134
137.000000 -38.000000 28.129499 165 132 134
138.000000 -38.000000 28.129499 162 131 132
139.000000 -38.000000 28.129499 142 117 116
140.000000 -38.000000 28.129499 103 93 87
141.000000 -38.000000 9.576000 97 98 89
142.000000 -38.000000 9.576000 129 132 124
143.000000 -38.000000 9.775499 169 173 166
144.000000 -38.000000 9.775499 175 180 173
145.000000 -38.000000 9.576000 172 177 170
146.000000 -38.000000 9.576000 118 121 116
147.000000 -38.000000 9.177000 22 23 22
148.000000 -38.000000 8.778000 0 0 0
149.000000 -38.000000 8.379000 0 0 0
150.000000 -38.000000 8.379000 0 0 0
151.000000 -38.000000 8.778000 0 0 0
152.000000 -38.000000 9.177000 0 0 0
153.000000 -38.000000 9.376500 0 0 0
154.000000 -38.000000 9.376500 0 0 0
155.000000 -38.000000 9.376500 0 0 0
156.000000 -38.000000 9.376500 0 0 0
157.000000 -38.000000 9.376500 0 0 0
158.000000 -38.000000 9.576000 0 0 0
159.000000 -38.000000 9.576000 0 0 0
160.000000 -38.000000 9.576000 0 0 0
161.000000 -38.000000 9.576000 0 0 0
162.000000 -38.000000 9.576000 0 0 0
163.000000 -38.000000 9.576000 0 0 0
164.000000 -38.000000 9.376500 0 0 0
63.000000 -39.000000 18.753000 180 115 72
64.000000 -39.000000 22.144499 184 112 68
65.000000 -39.000000 23.142000 188 113 67
66.000000 -39.000000 23.540998 191 114 68
67.000000 -39.000000 23.540998 191 116 69
68.000000 -39.000000 23.341499 190 114 69
69.000000 -39.000000 23.142000 186 111 66
70.000000 -39.000000 22.942499 172 98 58
71.000000 -39.000000 22.942499 146 77 45
72.000000 -39.000000 22.743000 110 56 34
73.000000 -39.000000 22.743000 68 35 23
74.000000 -39.000000 22.543499 42 21 13
75.000000 -39.000000 22.344000 37 18 11
76.000000 -39.000000 21.546000 36 17 11
77.000000 -39.000000 20.348999 36 17 11
82.000000 -39.000000 37.705498 13 12 6
83.000000 -39.000000 37.904999 6 7 1
84.000000 -39.000000 38.104500 8 10 4
85.000000 -39.000000 38.104500 16 17 10
86.000000 -39.000000 38.104500 40 32 21
87.000000 -39.000000 38.104500 105 50 44
88.000000 -39.000000 38.104500 153 47 51
89.000000 -39.000000 38.104500 163 41 47
90.000000 -39.000000 38.104500 164 39 43
91.000000 -39.000000 38.104500 166 37 42
92.000000 -39.000000 38.104500 168 36 41
93.000000 -39.000000 38.304001 169 35 39
94.000000 -39.000000 38.304001 170 35 39
95.000000 -39.000000 38.304001 171 36 41
96.000000 -39.000000 38.304001 173 38 44
97.000000 -39.000000 38.304001 176 41 47
98.000000 -39.000000 38.304001 180 46 52
99.000000 -39.000000 38.304001 183 54 60
100.000000 -39.000000 38.304001 188 64 70
101.000000 -39.000000 38.304001 193 71 77
102.000000 -39.000000 38.503498 196 73 80
103.000000 -39.000000 38.503498 198 71 79
104.000000 -39.000000 38.503498 197 64 73
105.000000 -39.000000 38.702999 195 57 66
106.000000 -39.000000 38.702999 192 53 62
107.000000 -39.000000 39.101997 182 56 63
108.000000 -39.000000 39.101997 157 75 75
109.000000 -39.000000 25.336500 138 93 88
110.000000 -39.000000 25.535999 131 92 88
111.000000 -39.000000 25.535999 129 90 88
112.000000 -39.000000 25.735498 128 88 87
113.000000 -39.000000 25.735498 125 85 84
114.000000 -39.000000 25.934999 124 83 83
115.000000 -39.000000 25.934999 125 85 85
116.000000 -39.000000 25.735498 127 87 87
117.000000 -39.000000 25.735498 128 87 88
118.000000 -39.000000 25.535999 129 88 89
119.000000 -39.000000 25.535999 131 91 92
120.000000 -39.000000 25.535999 135 94 95
121.000000 -39.000000 25.735498 139 98 99
122.000000 -39.000000 26.134499 141 100 101
123.000000 -39.000000 26.733000 142 101 102
124.000000 -39.000000 27.531000 144 103 105
125.000000 -39.000000 27.929998 146 105 107
126.000000 -39.000000 28.129499 138 97 100
127.000000 -39.000000 28.528500 132 93 94
128.000000 -39.000000 28.727999 131 94 95
129.000000 -39.000000 28.727999 146 110 112
130.000000 -39.000000 28.727999 178 142 143
131.000000 -39.000000 28.927500 198 163 163
132.000000 -39.000000 28.927500 202 169 168
133.000000 -39.000000 28.927500 201 169 169
134.000000 -39.000000 28.927500 198 165 166
135.000000 -39.000000 28.727999 188 155 155
136.000000 -39.000000 28.528500 171 138 139
137.000000 -39.000000 28.129499 165 133 134
138.000000 -39.000000 28.328999 163 131 132
139.000000 -39.000000 28.129499 144 118 117
140.000000 -39.000000 27.929998 105 94 88
141.000000 -39.000000 9.576000 97 97 89
142.000000 -39.000000 9.576000 131 133 126
143.000000 -39.000000 9.775499 171 175 168
144.000000 -39.000000 9.775499 177 181 174
145.000000 -39.000000 9.576000 175 179 172
146.000000 -39.000000 9.576000 137 140 135
147.000000 -39.000000 9.177000 36 37 35
148.000000 -39.000000 8.778000 1 1 1
149.000000 -39.000000 8.379000 0 0 0
150.000000 -39.000000 8.379000 0 0 0
151.000000 -39.000000 8.578500 0 0 0
152.000000 -39.000000 9.177000 0 0 0
153.000000 -39.000000 9.576000 0 0 0
154.000000 -39.000000 9.576000 0 0 0
155.000000 -39.000000 9.376500 0 0 0
156.000000 -39.000000 9.376500 0 0 0
157.000000 -39.000000 9.376500 0 0 0
158.000000 -39.000000 9.376500 0 0 0
159.000000 -39.000000 9.576000 0 0 0
160.000000 -39.000000 9.576000 0 0 0
161.000000 -39.000000 9.576000 0 0 0
162.000000 -39.000000 9.576000 0 0 0
163.000000 -39.000000 9.576000 0 0 0
164.000000 -39.000000 9.376500 0 0 0
63.000000 -40.000000 19.152000 188 108 61
64.000000 -40.000000 23.142000 190 108 61
65.000000 -40.000000 23.540998 192 109 62
66.000000 -40.000000 23.939999 196 115 68
67.000000 -40.000000 24.538500 198 122 74
68.000000 -40.000000 24.538500 198 121 74
69.000000 -40.000000 24.538500 196 118 72
70.000000 -40.000000 24.338999 190 110 64
71.000000 -40.000000 23.939999 184 103 59
72.000000 -40.000000 23.740499 169 94 55
73.000000 -40.000000 23.540998 131 75 49
74.000000 -40.000000 23.540998 72 40 27
75.000000 -40.000000 23.540998 41 20 12
76.000000 -40.000000 23.740499 37 17 11
77.000000 -40.000000 23.939999 36 17 12
78.000000 -40.000000 23.939999 34 18 13
82.000000 -40.000000 37.705498 16 16 9
83.000000 -40.000000 37.904999 10 12 7
84.000000 -40.000000 38.104500 14 16 11
85.000000 -40.000000 38.104500 27 22 14
86.000000 -40.000000 38.104500 79 34 30
87.000000 -40.000000 38.104500 143 44 48
88.000000 -40.000000 38.104500 159 42 47
89.000000 -40.000000 38.104500 162 39 44
90.000000 -40.000000 38.104500 163 37 42
91.000000 -40.000000 38.104500 164 36 41
92.000000 -40.000000 38.304001 167 34 39
93.000000 -40.000000 38.304001 168 34 39
94.000000 -40.000000 38.304001 169 34 39
95.000000 -40.000000 38.304001 170 35 40
96.000000 -40.000000 38.304001 173 37 42
97.000000 -40.000000 38.304001 175 39 46
98.000000 -40.000000 38.304001 178 43 50
99.000000 -40.000000 38.304001 182 50 57
100.000000 -40.000000 38.304001 185 58 64
101.000000 -40.000000 38.304001 189 64 69
102.000000 -40.000000 38.503498 192 67 72
103.000000 -40.000000 38.503498 196 68 74
104.000000 -40.000000 38.702999 197 65 72
105.000000 -40.000000 38.702999 195 60 67
106.000000 -40.000000 38.902500 193 55 63
107.000000 -40.000000 39.301498 190 51 61
108.000000 -40.000000 39.700500 177 59 67
109.000000 -40.000000 39.700500 150 83 82
110.000000 -40.000000 25.735498 132 90 88
111.000000 -40.000000 25.735498 129 89 88
112.000000 -40.000000 25.735498 127 87 87
113.000000 -40.000000 25.934999 124 83 83
114.000000 -40.000000 25.934999 123 82 83
115.000000 -40.000000 25.934999 124 83 84
116.000000 -40.000000 25.735498 126 85 86
117.000000 -40.000000 25.735498 128 87 88
118.000000 -40.000000 25.735498 129 88 89
119.000000 -40.000000 25.735498 131 90 91
120.000000 -40.000000 25.934999 134 92 94
121.000000 -40.000000 26.334000 137 95 97
122.000000 -40.000000 26.932499 139 98 99
123.000000 -40.000000 27.531000 140 100 101
124.000000 -40.000000 28.129499 142 100 103
125.000000 -40.000000 28.328999 138 96 101
126.000000 -40.000000 28.727999 119 78 83
127.000000 -40.000000 28.727999 107 67 71
128.000000 -40.000000 28.727999 103 65 70
129.000000 -40.000000 28.927500 111 75 79
130.000000 -40.000000 28.927500 148 113 115
131.000000 -40.000000 28.927500 188 154 153
132.000000 -40.000000 28.927500 200 168 166
133.000000 -40.000000 28.927500 202 171 170
134.000000 -40.000000 28.927500 203 171 172
135.000000 -40.000000 28.927500 199 167 168
